0.0 1.8013480371822679 0.4512141940803617
0.0 1.8213435905288087 0.4325407787014163
0.0 1.8460284300328957 0.41453954637679846
0.0 1.862716273850171 0.3943400602699842
0.0 1.87329988557017 0.372622515050806
0.0 1.8865794303805041 0.3512535449859157
0.0 1.8927183510291563 0.3284177883085381
0.0 1.9005552299538773 0.3058019259176837
0.0 1.907132311212098 0.2828963547499371
0.0 1.9164056969173267 0.2602790902527826
0.0 1.9214403789831025 0.23698706718568235
0.0 1.9271856148345683 0.21372085994283999
0.0 1.9286680002907175 0.1899572179586884
0.0 1.9308538424102237 0.1662751913235254
0.0 1.9337461954999804 0.14264168881975525
0.0 1.9383453752520898 0.11908486989889011
0.0 1.9396607759504447 0.09528942354384605
0.0 1.9386854261013982 0.07140601250623563
0.0 1.9324178165397627 0.047438194734789885
0.0 1.9348542980587446 0.023745426582867712
0.0 1.931 5.9119824228838485e-16
0.0 1.9328544486550663 -0.023720883506296805
0.0 1.9314181177210668 -0.04741365350626578
0.0 1.927692879870926 -0.07100113305388121
0.0 1.928674025932188 -0.09474967912624328
0.0 1.9263679578972879 -0.11834902106326241
0.0 1.925767871846551 -0.14205317231095674
0.0 1.9228833415127615 -0.16558881282476867
0.0 1.9207065224773399 -0.18917308083605242
0.0 1.9192343590745495 -0.21283908228448775
0.0 1.9184629403793065 -0.23661983516008522
0.0 1.9183875021881822 -0.26054825166979567
0.0 1.9130673702718866 -0.28377673759666805
0.0 1.9133901483899294 -0.3078670817810244
0.0 1.910453348592157 -0.33149510230622403
0.0 1.8973935907422477 -0.35326698375342114
0.0 1.351522116395652 -0.2688344637382234
0.0 1.8969573818253578 -0.4015889584367124
0.0 1.893837834404784 -0.425275507144484
0.0 1.8923682070398147 -0.44940802060590407
0.0 1.8905909124761662 -0.4735683706314625
0.0 1.8875380714795513 -0.49749776754801267
0.0 1.8812908804326987 -0.520623302591001
0.0 1.878602095976847 -0.5447845124371622
0.0 1.875603058035129 -0.5689579674187472
0.0 1.8703864511749284 -0.5925356725643254
0.0 1.862024762142945 -0.6151298929222252
0.0 1.8571727870473445 -0.6389094138066825
0.0 1.8510756321498185 -0.6623254517691052
0.0 1.8418711584082097 -0.6846427066901385
0.0 1.8333308497102625 -0.7071937467912505
0.0 1.8272999663712879 -0.7307522376972174
0.0 1.8191187995147236 -0.7535036783268619
0.0 1.808816060126034 -0.775376334840142
0.0 1.7909369114232172 -0.7938677341357736
0.0 1.7819692468574235 -0.8162019377913697
0.0 1.7609711430044677 -0.8328773220021894
0.0 1.7407324400491888 -0.8495996540491272
0.0 1.7185635555001721 -0.8650521982554613
0.0 1.6856276391450193 -0.8745630121096983
0.0 1.6518385281244692 -0.8829260880750933
0.0 1.6145971836021349 -0.8886646919418221
0.0 1.4652264930270695 -0.8300405557149572
0.0 1.1499478714978317 -0.6702095887389303
0.0 1.0327052464403277 -0.6189797040086386
0.0 0.9467069747330554 -0.5833437271384566
0.0 0.8862513899469425 -0.5612125032615655
0.0 0.8348718067326187 -0.5431436884683581
0.0 0.7915590709120234 -0.5289028618346608
0.0 0.7553238013510828 -0.5182103386777902
0.0 0.7284680685180609 -0.5130450985533003
0.0 0.7067186768762628 -0.5108157317020144
0.0 0.6819231942270679 -0.5057487095140755
0.0 0.6565654463023287 -0.4995466091585689
0.0 0.6314654885289116 -0.4928005040550822
0.0 0.6058520893719455 -0.4848909627984916
0.0 0.589033965462406 -0.4834076825326974
0.0 0.5692844456231093 -0.4790106679100051
0.0 0.5512480402567208 -0.47550982967034944
0.0 0.5371307948733206 -0.47495211253215286
0.0 0.5231114945006008 -0.47412062212199535
0.0 0.5062641017256372 -0.47029528947665816
0.0 0.4932122634899491 -0.46957711096594246
0.0 0.4795396529401588 -0.4679120871040115
0.0 0.4666904755831211 -0.4666904755831216
0.0 0.4539445621158323 -0.46522503643448215
0.0 0.44268502972119717 -0.4649666272548416
0.0 0.433542835595704 -0.46670077105532654
0.0 0.4230821415536214 -0.46679920897362437
0.0 0.41136019788349665 -0.46521370099906817
0.0 0.4010481255736192 -0.46492623175498127
0.0 0.39209340961988265 -0.4659868647640778
0.0 0.37936718392985996 -0.4622602511109168
0.0 0.3705416764684352 -0.46297717654325193
0.0 0.36052571208024775 -0.461971006589191
0.0 0.3475633377660826 -0.45681038324549933
0.0 0.3359744077337323 -0.45300904775508377
0.0 0.32628940660323663 -0.45142465942669513
0.0 0.3155428888969796 -0.4480364776070676
0.0 0.3049294460123674 -0.44445363420112877
0.0 0.2916743723352912 -0.43652154645883623
0.0 0.28302366899104237 -0.4350386221829608
0.0 0.26963880042309674 -0.4258061968858526
0.0 0.2528522270510219 -0.41035320307673784
0.0 0.23957187879404146 -0.3997015322601267
0.0 0.23364181004873327 -0.4008834052404161
0.0 0.2282118630023898 -0.40285027688333347
0.0 0.21746488120768437 -0.3951076124821284
0.0 0.20835735767709113 -0.38980919884197285
0.0 0.20033433926683478 -0.3861232348752413
0.0 0.1928832604218261 -0.38319322521287613
0.0 0.18685051761741284 -0.38283532238562434
0.0 0.18085580452100955 -0.38238747099121645
0.0 0.1765661334813979 -0.38548722483038167
0.0 0.17425376502214557 -0.3931101949525182
0.0 0.1702045613063729 -0.39705718393010486
0.0 0.1657019262140842 -0.400039837577387
0.0 0.16189429656300097 -0.40482865108632204
0.0 0.15763402600232482 -0.4086508458896156
0.0 0.15365263799000084 -0.41336650425344545
0.0 0.1495790949061461 -0.4180455649412611
0.0 0.14443776972004463 -0.4198496524689515
0.0 0.1386473292563101 -0.4196914558221222
0.0 0.13318462364977987 -0.4204079637961994
0.0 0.1277252579919632 -0.42105374772217197
0.0 0.12227014364003824 -0.42162899802343345
0.0 0.11655347501653072 -0.42117014075260717
0.0 0.11061169626835966 -0.4196677884334657
0.0 0.1049674377182098 -0.41905350138004305
0.0 0.09981710277724992 -0.420310059352802
0.0 0.08019105389741452 -0.3571069795941014
0.0 0.07600987506254456 -0.35904247505410325
0.0 0.08330356750088665 -0.41879531473217946
0.0 0.07797499226889014 -0.41880293764569815
0.0 0.0723168789456077 -0.41677244273052205
0.0 0.06735585277355699 -0.41861580129893194
0.0 0.061920260220162594 -0.4174324872051376
0.0 0.056793058990007396 -0.4181609121505232
0.0 0.05165730493406959 -0.41882636360065556
0.0 0.046072882648842926 -0.4154531134609848
0.0 0.04097116465775635 -0.4159872157489783
0.0 0.03594907387232053 -0.417454984504584
0.0 0.030676423021061733 -0.41587012043501376
0.0 0.02544810556541644 -0.41421901685356194
0.0 0.020264949497223725 -0.4125025234127362
0.0 0.015274997520664201 -0.41471878960416503
0.0 0.010160068608485437 -0.4138753109402286
0.0 0.005043602235430841 -0.4109690524558884
0.0 1.5173373841435706e-16 -0.413
0.0 -0.005068145312001977 -0.4129689018595667
0.0 -0.010135527379962955 -0.41287561212153234
0.0 -0.015164575851839819 -0.41172082245040004
0.0 -0.020166814148568583 -0.4105049325003259
0.0 -0.025325464092811723 -0.4122227806277617
0.0 -0.03016147107586375 -0.40888908723826295
0.0 -0.035434289998253585 -0.4114771088314873
0.0 -0.04028504467544911 -0.4090209226622729
0.0 -0.04563199381966783 -0.4114774855809754
0.0 -0.05067801953247555 -0.41088652732386594
0.0 -0.055581832613442954 -0.4092427884316732
0.0 -0.06089314689897477 -0.4105082516353842
0.0 -0.06608498762688653 -0.4107173899536691
0.0 -0.07077822194676467 -0.40790494394902166
0.0 -0.075595473725473 -0.4060225663090924
0.0 -0.08115757395870894 -0.408006676647744
0.0 -0.08574410974357857 -0.4050233914779258
0.0 -0.09114611590525774 -0.4058920860960279
0.0 -0.09588911493647823 -0.4037700801653075
0.0 -0.101079754839758 -0.4035330013289303
0.0 -0.1062789800550826 -0.4032291884257033
0.0 -0.11175264538198225 -0.4038221715682893
0.0 -0.11669974985233687 -0.40242038763512217
0.0 -0.12191956444687437 -0.40191494100752767
0.0 -0.12714450466339497 -0.4013418429891156
0.0 -0.13268737618873086 -0.4016504203908546
0.0 -0.13793156387679978 -0.4009375059613409
0.0 -0.14284129783830138 -0.39921468363760076
0.0 -0.148426357786259 -0.39930641907475695
0.0 -0.15331528556390464 -0.39745493230359885
0.0 -0.1589237590113867 -0.39740060244253617
0.0 -0.16455387591698864 -0.3972681989798533
0.0 -0.17020456130637263 -0.397057183930105
0.0 -0.17506424765015527 -0.39493861446392536
0.0 -0.18114685864247232 -0.3954880726443772
0.0 -0.18555891054874238 -0.3923313532155744
0.0 -0.19167529624133636 -0.392720741508258
0.0 -0.19692976238871795 -0.3912322439236356
0.0 -0.20309757153258395 -0.39144907259765854
0.0 -0.20788596094026485 -0.38892727757762463
0.0 -0.2136074110310511 -0.38809905172856524
0.0 -0.21983259373448388 -0.3880587980344852
0.0 -0.22457811914167006 -0.38533189383022765
0.0 -0.22980392665436994 -0.38340468867012173
0.0 -0.22504897386906278 -0.365231377842159
0.0 -0.24074892894919386 -0.3801841043623681
0.0 -0.24594156977834292 -0.37803934220523194
0.0 -0.25111774532486 -0.37582426476075065
0.0 -0.25627651028497705 -0.37353895416161625
0.0 -0.2631443434779554 -0.37363625961027375
0.0 -0.2688812165725053 -0.3719998539979411
0.0 -0.2728302814575342 -0.3678690494181356
0.0 -0.27792956800458557 -0.3652891392154774
0.0 -0.2848522264388302 -0.36500439599111867
0.0 -0.28868508352178235 -0.36070059960030776
0.0 -0.29499287713609484 -0.359449860813673
0.0 -0.30002549898664294 -0.3565679457800658
0.0 -0.3076444090312288 -0.3566453667045543
0.0 -0.3119978312449707 -0.3528432418205495
0.0 -0.31899050355233394 -0.3519517845436054
0.0 -0.3253272769462266 -0.3502087418594133
0.0 -0.3316690020185291 -0.3483628468996557
0.0 -0.3366173522151246 -0.34498225778680086
0.0 -0.339411254969543 -0.3394112549695426
0.0 -0.3471294502626521 -0.3387124809633518
0.0 -0.35560531772917003 -0.33856440746590005
0.0 -0.36046590166282677 -0.3348556909153632
0.0 -0.36528890479999493 -0.33107856473958
0.0 -0.3693242425000654 -0.32657097835195475
0.0 -0.3770900055602291 -0.32528007579098106
0.0 -0.38105329827998474 -0.3206281083591159
0.0 -0.3872782371347313 -0.31783103536598634
0.0 -0.39271082597176343 -0.31430432253562046
0.0 -0.3989032923790625 -0.31130718483379755
0.0 -0.4026934737320952 -0.3063885869505885
0.0 -0.41043904858660957 -0.3044023445956335
0.0 -0.41657499990183355 -0.3011000987326098
0.0 -0.4226913483993685 -0.29769283496302645
0.0 -0.4287864374482132 -0.2941805416074787
0.0 -0.4373530160711387 -0.29222994256831086
0.0 -0.44509731864961877 -0.28956756885210694
0.0 -0.45199665740859346 -0.2862237266395967
0.0 -0.45377231792510636 -0.2796063008676239
0.0 -0.46231572079014654 -0.27710137912014665
0.0 -0.4691372608740213 -0.273421342363065
0.0 -0.47158714918092176 -0.26715082018854275
0.0 -0.4818385518074736 -0.26520107464351755
0.0 -0.4841747741272468 -0.25879680851747294
0.0 -0.490864710082778 -0.25467790715990724
0.0 -0.4930598142599245 -0.24818545396934272
0.0 -0.4969669795287564 -0.2425547799118059
0.0 -0.5035220362697578 -0.23814818704066745
0.0 -0.5054973985983305 -0.23153483541428596
0.0 -0.5073864144154595 -0.22490892927276931
0.0 -0.5055126184295317 -0.21669562203357662
0.0 -0.5081337428812075 -0.2104758878007998
0.0 -0.5116068503407418 -0.20459577386746228
0.0 -0.5112800537614369 -0.19722248002117354
0.0 -0.5164737955638288 -0.1919786928174387
0.0 -0.5225569561765764 -0.18697386863268264
0.0 -0.5267032802369503 -0.1811978327343803
0.0 -0.5326853093126935 -0.17597545636377823
0.0 -0.5357579946790568 -0.16972734351740656
0.0 -0.5416282300244303 -0.16430112732602542
0.0 -0.5474453960668725 -0.15875622294948022
0.0 -0.552243685700787 -0.15282641003311698
0.0 -0.5540775179087001 -0.14603802295338733
0.0 -0.5548578768272793 -0.1389846629046667
0.0 -0.5584675325659915 -0.13262735415310528
0.0 -0.5620044269021923 -0.12620231433035733
0.0 -0.5635108055345054 -0.11929615268671848
0.0 -0.565913106792664 -0.11256711580330586
0.0 -0.5692180772226741 -0.10598009512602675
0.0 -0.5704757549431969 -0.09898693359221483
0.0 -0.572634822531558 -0.09213772313363931
0.0 -0.5717440227596434 -0.08481021423519904
0.0 -0.5747235285481124 -0.07805681093413343
0.0 -0.5716682119288569 -0.07050854891474904
0.0 -0.5714965077513547 -0.06337776919398254
0.0 -0.5722312178365132 -0.0563598556894974
0.0 -0.569890814168549 -0.049076062661019944
0.0 -0.5724447221335681 -0.04222605950620971
0.0 -0.5719216786917855 -0.035136781901165384
0.0 -0.5693134100369484 -0.027968574366628415
0.0 -0.5706130815999476 -0.02101692429951632
0.0 -0.5688286278381401 -0.013963959029536782
0.0 -0.5669573059427949 -0.006957962208003165
-0.2 -0.56 -1.0287033112837766e-16
-0.2 -0.5569580589244035 0.00683524682514612
-0.2 -0.5608310372885705 0.013767629201353644
-0.2 -0.5616191801386525 0.020685659293043737
-0.2 -0.5613230463873069 0.027576032972008727
-0.2 -0.5609423794498838 0.03446225380184125
-0.2 -0.5624718175667813 0.04149041387021218
-0.2 -0.5619203132710868 0.04838968416226407
-0.2 -0.5612841858431191 0.05528166714587189
-0.2 -0.563545251991336 0.06249599153563162
-0.2 -0.5627358961174685 0.06940685283795574
-0.2 -0.5648145021938347 0.0767110038490618
-0.2 -0.5658089636998547 0.08392983138846703
-0.2 -0.5637491097681372 0.09070799984363473
-0.2 -0.5645640890888632 0.09796116225965266
-0.2 -0.5623363388106558 0.10469881591034041
-0.2 -0.5629707509514543 0.11198184483725764
-0.2 -0.5586192186809075 0.11826059580575654
-0.2 -0.5600530226421153 0.12576411185004324
-0.2 -0.5613863524226081 0.13332052847794745
-0.2 -0.5567979393336683 0.1394706232644734
-0.2 -0.5579454237928796 0.14705748559180506
-0.2 -0.5551350138981734 0.15362654830554134
-0.2 -0.5512871181445348 0.1598703017070206
-0.2 -0.554068454388949 0.1680748281303335
-0.2 -0.5519641973650782 0.1748614446558331
-0.2 -0.5469282320215892 0.18068068246976127
-0.2 -0.5437242120937998 0.1870534179933012
-0.2 -0.5442124696757861 0.19472233526070293
-0.2 -0.538032592837818 0.19999232246317541
-0.2 -0.53553786653114 0.20657975097108336
-0.2 -0.5338909962720989 0.2135073865223065
-0.2 -0.5303068516614785 0.21966029017756164
-0.2 -0.5229757816116429 0.22418147079473624
-0.2 -0.5201853509953089 0.23058230766883933
-0.2 -0.5173165823785073 0.23694841969555538
-0.2 -0.5125619292009924 0.24242373797497
-0.2 -0.507751073117084 0.2478181747742679
-0.2 -0.5037785058742706 0.2535807899251981
-0.2 -0.49796582704600123 0.2583622168475724
-0.2 -0.49475782929942713 0.26445356935938463
-0.2 -0.4888471125610368 0.2690585448201506
-0.2 -0.48289828006533486 0.2735584966875301
-0.2 -0.4812328808597237 0.2804708797352248
-0.2 -0.4691775496701489 0.2812142010736922
-0.2 -0.4588804490837379 0.2827538389636948
-0.2 -0.4545312181043425 0.28782871949925815
-0.2 -0.44425909394406415 0.28902224386368464
-0.2 -0.4282068503358109 0.28611867000509494
-0.2 -0.4164175979064378 0.2856945644457246
-0.2 -0.40879240657579197 0.28790409570892245
-0.2 -0.39793448434202405 0.28762674801111143
-0.2 -0.3791139548588643 0.2811700717204287
-0.2 -0.3621057915970421 0.27550752383896804
-0.2 -0.35239085314909296 0.27500852098954026
-0.2 -0.33337479660028446 0.26681500143679887
-0.2 -0.30688514998500654 0.2518541338129673
-0.2 -0.29535456453026926 0.24851897555545938
-0.2 -0.29303982359800956 0.2527778902231116
-0.2 -0.27043823842296894 0.2391320957100519
-0.2 -0.2519233826206861 0.22833004464798623
-0.2 -0.26741880916043076 0.24841936419534022
-0.2 -0.26797142069204277 0.25513000155271476
-0.2 -0.2397698264700792 0.23395604355200594
-0.2 -0.23122391744800108 0.23122391744800097
-0.2 -0.22557552855909818 0.23118105656667348
-0.2 -0.22065297431586148 0.23175906654446934
-0.2 -0.21506991530336317 0.23151874984848247
-0.2 -0.21959977823497512 0.24229101799107156
-0.2 -0.2205844539375272 0.24946241937631197
-0.2 -0.1998708899438558 0.23170590703098418
-0.2 -0.19379329440982723 0.2303153469523601
-0.2 -0.19158677181742087 0.23344915691554663
-0.2 -0.18683298695457357 0.23344043134305623
-0.2 -0.18272378240244608 0.23413888900510213
-0.2 -0.16651553638618954 0.21885514876744291
-0.2 -0.1703700010848359 0.2297173540034645
-0.2 -0.17163877223473664 0.2374639590880102
-0.2 -0.17389407380818928 0.24691061357177826
-0.2 -0.18103417945075634 0.263868576891208
-0.2 -0.1816714661974099 0.2718905632229323
-0.2 -0.1875917960171841 0.2883492987108642
-0.2 -0.18671416934059695 0.29485389427214775
-0.2 -0.19304900322567645 0.31329871106273766
-0.2 -0.1974154537701972 0.3293677862401045
-0.2 -0.19537289288557833 0.33522146817517573
-0.2 -0.19814507327637326 0.34977497042570194
-0.2 -0.2029993680453106 0.3688255096562662
-0.2 -0.20835735767709107 0.38980919884197285
-0.2 -0.21184780704079037 0.4083142253853128
-0.2 -0.2126661589266291 0.42249509446547867
-0.2 -0.21316749192972442 0.43675579032726153
-0.2 -0.21292243652828072 0.4501866679754747
-0.2 -0.2111297869695021 0.4609481674268948
-0.2 -0.20910451802657462 0.4717322339430219
-0.2 -0.20605783695192822 0.48069654443390014
-0.2 -0.2020568522887673 0.4878083931659594
-0.2 -0.1975407471823777 0.49396523481175064
-0.2 -0.19398342469235855 0.5028831185719242
-0.2 -0.18849450601494427 0.5071004054447029
-0.2 -0.18293119039197547 0.5112584273943803
-0.2 -0.17631817835194677 0.5125191703562425
-0.2 -0.1700155032961992 0.5146442738814259
-0.2 -0.1639892304803411 0.5176451799123272
-0.2 -0.1570440103946642 0.5177047216311249
-0.2 -0.15040063226792852 0.5186324804844056
-0.2 -0.14402488903644525 0.5204390755295375
-0.2 -0.1373725905268333 0.5212003178931753
-0.2 -0.13072333678795614 0.5218768142186646
-0.2 -0.12315397171359764 0.5185769945255636
-0.2 -0.1167809610036118 0.5200492353105357
-0.2 -0.11039036351045248 0.5214431585935615
-0.2 -0.10281259970249984 0.5168738427725024
-0.2 -0.09646202095235931 0.5180965918762509
-0.2 -0.08992595348791874 0.5182560398965831
-0.2 -0.08292395082027575 0.515371340278402
-0.2 -0.07674003814015407 0.5173393147115805
-0.2 -0.07011654913221287 0.5162602730578734
-0.2 -0.06377596177879155 0.5170818375259278
-0.2 -0.05720532558552546 0.5158377174312229
-0.2 -0.05067486155038278 0.5145105036895258
-0.2 -0.04418561585738674 0.5131009952741307
-0.2 -0.03810644394462772 0.5165964565595614
-0.2 -0.03127357551412662 0.509040237579076
-0.2 -0.025073581581310646 0.5103844781208431
-0.2 -0.018808490923034195 0.5106537385246466
-0.2 -0.012491485318162436 0.5088466987163679
-0.2 -0.0062216699108598806 0.5069618238324463
-0.2 -1.2368932671388267e-16 0.505
-0.2 0.0061971268342886415 0.504961974428768
-0.2 0.012368779175547628 0.5038482046228869
-0.2 0.018661262031268964 0.5066564489862933
-0.2 0.02477917553534589 0.5043917053836121
-0.2 0.030905651096313116 0.5030515289016751
-0.2 0.0371501046178318 0.5036316806227386
-0.2 0.04307025079690878 0.5001489313157546
-0.2 0.04969469014708738 0.5045586564228037
-0.2 0.05588265909799862 0.5039108337911945
-0.2 0.06218462300120194 0.5041796035761447
-0.2 0.06823241921311284 0.5023876361618844
-0.2 0.037856462409483364 0.25520753957091347
-0.2 0.08149422753027073 0.5064856275149814
-0.2 0.08821633460031546 0.5084032634726936
-0.2 0.0948146619607628 0.5092486424893701
-0.2 0.10105678680435443 0.5080467752488733
-0.2 0.10769791561995337 0.5087250327742064
-0.2 0.11393264488157223 0.5073651076200348
-0.2 0.1203812744142298 0.5069017150990968
-0.2 0.1265926737296004 0.5053862829143575
-0.2 0.1327850086539522 0.503794741414368
-0.2 0.1402909104317964 0.5069462106084014
-0.2 0.14650135661653801 0.5051864532125876
-0.2 0.15094803217232025 0.4976089745807486
-0.2 0.1600631531391909 0.5052522013877228
-0.2 0.16656500415181116 0.5041994638949026
-0.2 0.1737156960146484 0.5049543117531984
-0.2 0.1809098512716219 0.5056091630032822
-0.2 0.18675241261369685 0.5024137103851402
-0.2 0.19470321476542873 0.5047491041695937
-0.2 0.20125391912189583 0.5032502956164828
-0.2 0.20817978720660893 0.50259046568614
-0.2 0.21511965387333212 0.5018361630227716
-0.2 0.22247748138873952 0.5019011558812383
-0.2 0.22903625805370023 0.5000423906997874
-0.2 0.2360104115735157 0.49900208980414074
-0.2 0.24387062862742112 0.49966300292583843
-0.2 0.25223195593623426 0.5010988329706841
-0.2 0.2592832942694889 0.4997411062868069
-0.2 0.2663391563066886 0.4982855143568206
-0.2 0.2738803825409418 0.4976078135029909
-0.2 0.28095196957097673 0.4959495849319656
-0.2 0.2885274938748362 0.49505644655766917
-0.2 0.297151386143682 0.49576713658015736
-0.2 0.3047866056361905 0.494637367194159
-0.2 0.3135086052538387 0.49508418923632846
-0.2 0.3201057682037412 0.49203790216068993
-0.2 0.3288975779476043 0.492230010483107
-0.2 0.33717615922703337 0.49145522445987505
-0.2 0.34606072304212515 0.49136847270410167
-0.2 0.3555792994760583 0.49194751933932507
-0.2 0.362780876435892 0.4891533866717127
-0.2 0.37360031254646875 0.4910313701436812
-0.2 0.3820588177505693 0.48956313155612247
-0.2 0.3905371800889913 0.48796076785755915
-0.2 0.40093655559142394 0.4885426065252497
-0.2 0.40947686127790717 0.486646380935884
-0.2 0.4193369651763247 0.4861280794571631
-0.2 0.4305702554336113 0.4869386564402488
-0.2 0.4378564385602559 0.4831001337314334
-0.2 0.4498772595427946 0.4842844735754647
-0.2 0.4578549217054123 0.4809000630797741
-0.2 0.47000721585223887 0.4816868454160098
-0.2 0.47941839764447913 0.47941839764447935
-0.2 0.4902756153194159 0.4783877308451464
-0.2 0.5004547343194634 0.47647251641331345
-0.2 0.5121253358990165 0.4757400974590217
-0.2 0.5231114945006009 0.47412062212199513
-0.2 0.533385112900703 0.4716400336442023
-0.2 0.5474619960241881 0.4722439654555809
-0.2 0.5601024384356399 0.47128468939532747
-0.2 0.5720277354884254 0.46945103028109747
-0.2 0.5878951331147871 0.4705191945712171
-0.2 0.6030850171343538 0.4706521667941794
-0.2 0.6143860903580579 0.46745452396413945
-0.2 0.628911497149345 0.4664325554175753
-0.2 0.6426925582143075 0.4645377009629563
-0.2 0.6573381897738733 0.46294978589994756
-0.2 0.6720402817697954 0.4610714257886451
-0.2 0.6867938997619024 0.45890101247419146
-0.2 0.7015940785493993 0.45643701530925324
-0.2 0.7181255304622509 0.4547479769040328
-0.2 0.7355708868429492 0.453245485834197
-0.2 0.7539434481902391 0.451896312145842
-0.2 0.7689358419482122 0.44814916151588846
-0.2 0.7839483789889488 0.4441012711990357
-0.2 0.8024802062829924 0.44168033522447636
-0.2 0.8219506183726667 0.4393417587218301
-0.2 0.8432576393827113 0.43751177541032804
-0.2 0.8637478992560631 0.434774155776005
-0.2 0.8887890465713203 0.43379145991460394
-0.2 0.915741153934048 0.43311330964487627
-0.2 0.9373521905663285 0.4293388764606641
-0.2 0.9635770825115214 0.42712434496125906
-0.2 0.9880473905668119 0.4235414430656269
-0.2 1.0190391243599495 0.4220998258986938
-0.2 1.0538544013370994 0.421445015135336
-0.2 1.0916015746366445 0.4210771927459361
-0.2 1.1398042384856908 0.42367711518331286
-0.2 1.1929363305868874 0.42683944424794285
-0.2 1.2510384914784294 0.43038551653067453
-0.2 1.3283899246496582 0.43884075481804935
-0.2 1.4347255907330618 0.45451895372543777
-0.2 1.5598127472435004 0.47316402392477397
-0.2 1.6778721174189937 0.4865738973556874
-0.2 1.746362231221337 0.4832835165445163
-0.2 1.786972518490887 0.4709917389491427
-0.2 1.8158985059801862 0.45485889677891067
-0.2 1.8301000500986586 0.4346203016759423
-0.2 1.8538340470732042 0.4162923562980534
-0.2 1.8666295433330495 0.39516850577475304
-0.2 1.8752614561309764 0.3730126956948382
-0.2 1.8846132194056415 0.3508874652100054
-0.2 1.8976447392411009 0.3292725977523396
-0.2 1.9064790384628245 0.3067550747776868
-0.2 1.9100998407419922 0.2833365461733031
-0.2 1.9154147942818989 0.2601445095442755
-0.2 1.922432858517701 0.23710947786088155
-0.2 1.9271856148345683 0.21372085994283999
-0.2 1.9376246628307674 0.19083937222165442
-0.2 1.938824343307686 0.1669615698222809
-0.2 1.937735357326695 0.1429359470741539
-0.2 1.9413397295907902 0.11926883210779674
-0.2 1.9366643895818292 0.0951422205208638
-0.2 1.9386854261013982 0.07140601250623563
-0.2 1.93841600945194 0.047585442105927356
-0.2 1.937854072164262 0.023782241197724867
-0.2 1.936 5.92729050787319e-16
-0.2 1.9338543733569054 -0.023733155044582524
-0.2 1.9294187200836743 -0.04736457104921996
-0.2 1.929691524640103 -0.07107474749976393
-0.2 1.9266764350197776 -0.09465154377758844
-0.2 1.927366076010188 -0.11841034179956463
-0.2 1.9247705813898721 -0.14197960774735705
-0.2 1.9248759667371271 -0.16576040744945755
-0.2 1.9226968919306842 -0.18936911511671156
-0.2 1.9222160799845567 -0.2131697489063694
-0.2 1.9154855017755104 -0.23625260313448757
-0.2 1.9183875021881822 -0.26054825166979567
-0.2 1.9150457232918163 -0.28407019854557874
-0.2 1.9114155455536137 -0.3075493654943567
-0.2 1.9065122380226012 -0.33081125475118284
-0.2 1.9013260126919724 -0.3539991433052417
-0.2 1.8988003028606544 -0.37769486342322245
-0.2 1.8950007470839185 -0.401174735684328
-0.2 1.8889593237545914 -0.4241800009436996
-0.2 1.8865305673265813 -0.44802167195622
-0.2 1.8750704124250532 -0.4696806877530103
-0.2 1.8681985420586542 -0.4924004543559224
-0.2 1.86201535911679 -0.5152890474415031
-0.2 1.8536309024720423 -0.5375430005131508
-0.2 1.8421101462845018 -0.558798003714841
-0.2 1.8265343733186354 -0.5786433988956409
-0.2 1.8145483531132933 -0.5994458059022807
-0.2 1.8023275621752741 -0.6200414168612713
-0.2 1.7776351950655431 -0.6360480432045119
-0.2 1.7500119352407772 -0.650497676025694
-0.2 1.71670674985592 -0.6622068672243769
-0.2 1.8987949345677255 -0.7593436616315089
-0.2 1.5040758789283748 -0.6230086278903664
-0.2 1.2417228136332683 -0.5322832461224755
-0.2 1.1153359019583078 -0.4943944030860867
-0.2 1.0328148287908332 -0.47306398027091634
-0.2 0.9681725329352079 -0.45791150506383205
-0.2 0.9301280719932424 -0.4539678068873756
-0.2 0.8825056095811695 -0.4442159936987504
-0.2 0.8485834771051283 -0.44027500767607775
-0.2 0.8201867758439703 -0.4383989652481777
-0.2 0.7972237857178203 -0.43878723259200114
-0.2 0.7735073350956442 -0.43818649289227846
-0.2 0.7533843305380237 -0.4390854706088258
-0.2 0.7333579615502327 -0.43955784628520433
-0.2 0.7142870070153179 -0.44013074376723477
-0.2 0.6961593377657584 -0.4408380387869684
-0.2 0.6789620114994188 -0.4417132406218576
-0.2 0.6601868721682211 -0.44112276501756376
-0.2 0.6423550668695344 -0.4407050806004352
-0.2 0.6238172124346583 -0.4393416500518161
-0.2 0.6102742702842039 -0.4411057866646983
-0.2 0.5895543281067938 -0.4372432894974457
-0.2 0.5737984082230048 -0.436573460852519
-0.2 0.5605143100425171 -0.43742966090282576
-0.2 0.5449545855433221 -0.4361519227233855
-0.2 0.5302851710068379 -0.43519379293626037
-0.2 0.517253071560782 -0.4352301229934992
-0.2 0.5027866740803059 -0.43370676772130773
-0.2 0.4929317475964365 -0.43586958165433276
-0.2 0.4779134758539483 -0.4331555258763272
-0.2 0.46743342532699933 -0.43422343659349916
-0.2 0.4541029210105699 -0.43234192155014084
-0.2 0.44375311167596787 -0.43299327463356285
-0.2 0.43274935008616683 -0.43274935008616733
-0.2 0.42251763089242855 -0.4330171492967103
-0.2 0.4116557052080292 -0.4323755085220256
-0.2 0.40155458869931765 -0.4322660202867232
-0.2 0.3921904296306586 -0.43271545720729626
-0.2 0.3822139036695291 -0.432251699640036
-0.2 0.3736148661695606 -0.4331234602017089
-0.2 0.3624771586469523 -0.43078917054544463
-0.2 0.3539914525633141 -0.4313398329764073
-0.2 0.3449224374545974 -0.43096695017179604
-0.2 0.3334555220947001 -0.4272837637736203
-0.2 0.3263704513169312 -0.4289560915841884
-0.2 0.3157206313809896 -0.4256999916847418
-0.2 0.30930126873699987 -0.42792140067736995
-0.2 0.29884445134586207 -0.4243265180256717
-0.2 0.29022041893199346 -0.42301431232871806
-0.2 0.2800073974418796 -0.41906068460048274
-0.2 0.27266249421102345 -0.4191123527774189
-0.2 0.26321882898445154 -0.41566795410285606
-0.2 0.25390140641637887 -0.41205591346294834
-0.2 0.24419880349178044 -0.4074210897501292
-0.2 0.23364181004873327 -0.4008834052404161
-0.2 0.22131128831117283 -0.3906690590078115
-0.2 0.21505396234728874 -0.3907272620111514
-0.2 0.20694316746661315 -0.3871634350489278
-0.2 0.19803164571204357 -0.381685036773227
-0.2 0.1928832604218261 -0.38319322521287613
-0.2 0.18728913385595136 -0.3837339968513183
-0.2 0.1774353637735673 -0.3751555566462289
-0.2 0.17156897876022628 -0.37457720903329533
-0.2 0.16898562794008068 -0.3812254681283723
-0.2 0.1650826647855793 -0.38510870385813417
-0.2 0.160727041593338 -0.3880294036547403
-0.2 0.1552105870718679 -0.38811554163780415
-0.2 0.15259549549083498 -0.3955889467059293
-0.2 0.14668426438501214 -0.39461972401519396
-0.2 0.14250440798490946 -0.39827313957241767
-0.2 0.13793156387679936 -0.40093750596134103
-0.2 0.13331473966952892 -0.40354947675204056
-0.2 0.12714450466339527 -0.40134184298911557
-0.2 0.12220984912412841 -0.40287188134325996
-0.2 0.11669974985233719 -0.4024203876351221
-0.2 0.11175264538198255 -0.40382217156828926
-0.2 0.10576924873587387 -0.4012952354836135
-0.2 0.10059379447995105 -0.40159293882254127
-0.2 0.09565805682819786 -0.4027971402131019
-0.2 0.08983150846431681 -0.40003787331579665
-0.2 0.08450144148642556 -0.399153487253608
-0.2 0.07940176106056408 -0.3991796091241148
-0.2 0.0746802742856976 -0.4011070388719363
-0.2 0.06958148872544287 -0.401008000452299
-0.2 0.06386097362021206 -0.3968951700994591
-0.2 0.05883892025660001 -0.3966597804958772
-0.2 0.05410144481986487 -0.39834285944196757
-0.2 0.04884185940448759 -0.3959993343048852
-0.2 0.043537771881083626 -0.39259325315093063
-0.2 0.03920685613182425 -0.39807389066887877
-0.2 0.03388993837605396 -0.3935434818121973
-0.2 0.029205131749068365 -0.39592431130143996
-0.2 0.02403772863046565 -0.39126230025685843
-0.2 0.019332663685002777 -0.3935254097448379
-0.2 0.01450204583889565 -0.3937330195278097
-0.2 0.009718326495073027 -0.3958807322036969
-0.2 0.004834986084573604 -0.39397033252462293
-0.2 1.4438585761947293e-16 -0.393
-0.2 -0.004798171469716158 -0.3909705584191055
-0.2 -0.009644702809504701 -0.39288163574760826
-0.2 -0.014391624170071284 -0.3907350523740447
-0.2 -0.019234528336347652 -0.39152781883242754
-0.2 -0.023915087157860948 -0.38926606403105823
-0.2 -0.028543050676671063 -0.3869486971913318
-0.2 -0.033546749126675914 -0.3895582313634662
-0.2 -0.038422719009187485 -0.3901124128555012
-0.2 -0.04309688305190851 -0.38861762527092114
-0.2 -0.047984984678092785 -0.38905197756269433
-0.2 -0.05289021844330044 -0.3894247357231176
-0.2 -0.057078154563135385 -0.38478966237629986
-0.2 -0.06227239218687385 -0.3870221559178805
-0.2 -0.06718802228279835 -0.38721411345885387
-0.2 -0.0715685961904599 -0.38439424558560564
-0.2 -0.07725576751838639 -0.38839097103967934
-0.2 -0.08160188221973419 -0.38545704406353326
-0.2 -0.08698319234227722 -0.38735374562529584
-0.2 -0.09126795277086482 -0.38431128112119634
-0.2 -0.09670611160149925 -0.38607243877142844
-0.2 -0.10169139818220134 -0.385823611946896
-0.2 -0.10615167747500939 -0.3835828741865851
-0.2 -0.11112935606463584 -0.3832117772468108
-0.2 -0.1161138709017851 -0.3827761342928835
-0.2 -0.12050037377837197 -0.38036911010132335
-0.2 -0.12610005964035415 -0.38171032859840087
-0.2 -0.13142535803355448 -0.3820253594537305
-0.2 -0.136103500770457 -0.38038380233394037
-0.2 -0.14076114682077148 -0.37868496081268027
-0.2 -0.14683717490627488 -0.38066106192457355
-0.2 -0.15038346355049442 -0.3760449625916522
-0.2 -0.15651752383732173 -0.37786672879711625
-0.2 -0.1603547603048464 -0.37407933763785356
-0.2 -0.16695942137005548 -0.3766544193498548
-0.2 -0.17156897876022664 -0.37457720903329517
-0.2 -0.1778629188669973 -0.3760595459393524
-0.2 -0.18202573899348876 -0.372949903262991
-0.2 -0.1874879244659712 -0.3724745335985298
-0.2 -0.1925051811805444 -0.37103336132839293
-0.2 -0.1994008196773969 -0.37305269481935427
-0.2 -0.20396373558946865 -0.37057764984465713
-0.2 -0.2094817316976584 -0.36978697122120224
-0.2 -0.2145073514671557 -0.36805243670779597
-0.2 -0.2195218717705055 -0.3662501164701163
-0.2 -0.22557356355174127 -0.3660827330352642
-0.2 -0.230583974171339 -0.36413188662262364
-0.2 -0.23612571998674609 -0.3629512975052449
-0.2 -0.24111748113050716 -0.3608578117393048
-0.2 -0.24665906950165561 -0.3595209360142708
-0.2 -0.2522039878410163 -0.3581021481603936
-0.2 -0.25716525942337654 -0.3557907100328892
-0.2 -0.26329909258565526 -0.3550177289144453
-0.2 -0.26884690238352066 -0.35335158564634417
-0.2 -0.2731628262177983 -0.3500258138662132
-0.2 -0.2793121911996465 -0.3489895411717263
-0.2 -0.28357379802114924 -0.3455356726531437
-0.2 -0.2897241943004063 -0.34432526953010645
-0.2 -0.2945809521721533 -0.34150118977442456
-0.2 -0.29941193147075745 -0.3386096503246038
-0.2 -0.3075740013199347 -0.3393556154125711
-0.2 -0.3103540549947267 -0.3340903478826202
-0.2 -0.31443048840010246 -0.330256669825869
-0.2 -0.3233482034763542 -0.33138337210640834
-0.2 -0.32668333290818513 -0.32668333290818474
-0.2 -0.3320991029316919 -0.32404657972576334
-0.2 -0.3389476348212863 -0.3227049749369475
-0.2 -0.34288219914268886 -0.3185212669682723
-0.2 -0.34898798004218584 -0.31630426773294557
-0.2 -0.3550906510041197 -0.3139850785777415
-0.2 -0.35891699324407345 -0.3096039275600904
-0.2 -0.36651512023315796 -0.30839530904420986
-0.2 -0.37336404897420206 -0.3064119562510407
-0.2 -0.37943829308603777 -0.30368171123719995
-0.2 -0.38786644239229 -0.3026939425656687
-0.2 -0.39553094159061525 -0.30093898757794957
-0.2 -0.40160376574032247 -0.2978496522462167
-0.2 -0.4084704279193076 -0.2952421201580454
-0.2 -0.41451550026785267 -0.291934753048848
-0.2 -0.422189723025933 -0.2896546871212098
-0.2 -0.4323641983973235 -0.28889652117019327
-0.2 -0.44006797041628976 -0.2862956189215747
-0.2 -0.4460826824518455 -0.2824787433003871
-0.2 -0.4529209627320011 -0.27908171118494546
-0.2 -0.46145799218014627 -0.27658727637595343
-0.2 -0.4674093151617782 -0.2724142655956136
-0.2 -0.47506749714535657 -0.26912241295746187
-0.2 -0.48008641161908283 -0.2642367070993593
-0.2 -0.49034822297768527 -0.2620965856752549
-0.2 -0.49707818742559795 -0.2579016781366149
-0.2 -0.5019920572718797 -0.2526815672658888
-0.2 -0.505055049720002 -0.24650232605865263
-0.2 -0.5080419827353749 -0.2402859625078189
-0.2 -0.5091340705306927 -0.2332005536546765
-0.2 -0.5101290436825701 -0.22612465321478428
-0.2 -0.5147037569464322 -0.22063554243418712
-0.2 -0.5182964177388317 -0.21468540555681578
-0.2 -0.520891911145474 -0.20830894580698064
-0.2 -0.5224759673474538 -0.2015412204595934
-0.2 -0.5239725076591293 -0.19476604225943422
-0.2 -0.5310308527632235 -0.19000587731321264
-0.2 -0.5333225315146141 -0.18347500477951614
-0.2 -0.5336348374932866 -0.17628913810417712
-0.2 -0.5424311369615361 -0.17184138516264116
-0.2 -0.5464129317030914 -0.1657525507122977
-0.2 -0.5512871181445348 -0.1598703017070204
-0.2 -0.5541712378323779 -0.1533598355480668
-0.2 -0.5589124002639244 -0.1473123512514099
-0.2 -0.559708033093252 -0.14019956380418305
-0.2 -0.5623592923748137 -0.13355158658622795
-0.2 -0.564931533292308 -0.12685961805082793
-0.2 -0.5693807097588232 -0.12053882094387178
-0.2 -0.5688554626338737 -0.11315238676935425
-0.2 -0.5711842881975367 -0.10634617490193703
-0.2 -0.5724463102279748 -0.09932885736973543
-0.2 -0.572634822531558 -0.09213772313363931
-0.2 -0.573722375779573 -0.08510367518410976
-0.2 -0.5727417232772568 -0.07778764951711917
-0.2 -0.5726606914634556 -0.07063095958994826
-0.2 -0.5734843216913594 -0.06359821360857029
-0.2 -0.5722312178365132 -0.0563598556894974
-0.2 -0.5728797520050973 -0.049333454598053265
-0.2 -0.5734420125902469 -0.042299624069809375
-0.2 -0.5739179149175858 -0.0352594233737698
-0.2 -0.5693134100369484 -0.027968574366628415
-0.2 -0.5686144368307708 -0.0209433098536336
-0.2 -0.567828929019444 -0.01393941780101387
-0.2 -0.5709570047501515 -0.007007048361146045
-0.4 -0.553 -1.0158445198927294e-16
-0.4 -0.5569580589244035 0.00683524682514612
-0.4 -0.5568322420137858 0.013669464287261995
-0.4 -0.557621890600299 0.020538430401278302
-0.4 -0.5553302736500758 0.027281626926044217
-0.4 -0.5579480251111834 0.03427829159293462
-0.4 -0.5574853652833879 0.041122591052213844
-0.4 -0.5569387502101729 0.04796069760054188
-0.4 -0.556308262209758 0.054791581444224094
-0.4 -0.5555939962313171 0.06161421387728056
-0.4 -0.5567810189098763 0.06867238878676044
-0.4 -0.5558963784749845 0.07549977747249767
-0.4 -0.5578955516201364 0.08275598759282414
-0.4 -0.5588126026773479 0.08991370912696542
-0.4 -0.5586524232345297 0.09693539092709084
-0.4 -0.5584039168609309 0.10396665635851986
-0.4 -0.5551244687082284 0.11042112226112862
-0.4 -0.5498143623444308 0.11639659342002658
-0.4 -0.5493202992116916 0.12335399820831766
-0.4 -0.550684012948347 0.13077888928686004
-0.4 -0.5470976268017228 0.13704082146544075
-0.4 -0.5502096120245209 0.14501856031496893
-0.4 -0.5474248053718098 0.1514928462457422
-0.4 -0.5445641045086258 0.1579206638813252
-0.4 -0.5435421106958946 0.16488169668053446
-0.4 -0.5395712188404738 0.17093536731468315
-0.4 -0.5374329502156588 0.17754386506577235
-0.4 -0.535213746165375 0.1841256253638408
-0.4 -0.5300893086980408 0.18966898745981964
-0.4 -0.524909846671042 0.19511446093968332
-0.4 -0.5252749457439579 0.2026209055691985
-0.4 -0.5190348989845276 0.20756631141907708
-0.4 -0.5136770200762754 0.21277198839499004
-0.4 -0.5101081876879822 0.21866558223388158
-0.4 -0.5046437851483488 0.22369320533075449
-0.4 -0.4991332227166968 0.22861982849360266
-0.4 -0.49538613263164694 0.23430019119979462
-0.4 -0.488878909337511 0.23860723376495885
-0.4 -0.48502079554916483 0.2441389520024514
-0.4 -0.4793253950175413 0.24869090391744936
-0.4 -0.474473640219415 0.2536114444123867
-0.4 -0.4695735704887379 0.25845050183440993
-0.4 -0.46201619227872576 0.2617289400740152
-0.4 -0.4527217766077114 0.26385411307227613
-0.4 -0.4468766058101418 0.26784752972466846
-0.4 -0.43589385886989573 0.2685899175313762
-0.4 -0.4182025147986051 0.26482382184411296
-0.4 -0.40653898219409645 0.26448261938469253
-0.4 -0.3916221873944989 0.26167357975223243
-0.4 -0.3735389541616165 0.2562765102849767
-0.4 -0.35891973297354535 0.25277979603243395
-0.4 -0.34039202326608986 0.24603510013170427
-0.4 -0.3204798050607773 0.237684022492481
-0.4 -0.2976430023237225 0.22646112948521765
-0.4 -0.2790746353798186 0.21779198306554198
-0.4 -0.25373959928593076 0.2030793336462755
-0.4 -0.24427130326262486 0.200468277795712
-0.4 -0.24714902679605433 0.20795758835340256
-0.4 -0.22640544510543886 0.19529868004317924
-0.4 -0.2202460999898971 0.19475023861151042
-0.4 -0.21932153310506788 0.19878145063471744
-0.4 -0.21466770160001705 0.19941609235406765
-0.4 -0.2085831598900225 0.19858767688427525
-0.4 -0.20613047768173973 0.20113235982978422
-0.4 -0.200111219075793 0.20011121907579288
-0.4 -0.19624372608392132 0.20112036190475308
-0.4 -0.1930713525263788 0.20278918322641068
-0.4 -0.18512347140036323 0.1992819618948963
-0.4 -0.18803650735716523 0.20746631509938848
-0.4 -0.17951467572693655 0.2030159629158575
-0.4 -0.17896935896933494 0.2074752239427767
-0.4 -0.1719030219515743 0.2042996599211965
-0.4 -0.17001740015585692 0.20716680150121358
-0.4 -0.1662126238458748 0.2076761028001771
-0.4 -0.1593449819603823 0.20418172475529106
-0.4 -0.15864389284793334 0.20850926900752745
-0.4 -0.1578603156904948 0.21284999584237094
-0.4 -0.15406483651104347 0.21315024314043238
-0.4 -0.15661982806565392 0.22238306917723077
-0.4 -0.15614197977627733 0.22758664756866692
-0.4 -0.15611523547850822 0.2336429610570152
-0.4 -0.1608708715845038 0.24727628813867714
-0.4 -0.16263927644567758 0.2568354838359109
-0.4 -0.16786869845710994 0.2724336617936849
-0.4 -0.17530903576988865 0.2924854560100928
-0.4 -0.18127381814125826 0.3110302282037713
-0.4 -0.18385102570170953 0.32454244768354934
-0.4 -0.1899804061991743 0.34517161711299027
-0.4 -0.19232986862500714 0.3598238758541287
-0.4 -0.19711056829012671 0.3799097575324215
-0.4 -0.19962743036664551 0.3965915897308087
-0.4 -0.20351793468187682 0.41698495208199454
-0.4 -0.2056539999399659 0.43481884999237613
-0.4 -0.20779835048872097 0.45367482356217065
-0.4 -0.20383638094450976 0.45984750711887595
-0.4 -0.20132993247119566 0.4696671782136195
-0.4 -0.1986127013974815 0.47949347737335785
-0.4 -0.19568416121261853 0.4893227044093846
-0.4 -0.19002457929047367 0.4926201977847422
-0.4 -0.18605557525319824 0.500539032361315
-0.4 -0.1805729614182299 0.5046676189380992
-0.4 -0.17436631659897317 0.5068455264039593
-0.4 -0.16907445807500252 0.5117956893396467
-0.4 -0.16308321263238343 0.5147852617912646
-0.4 -0.15646344104015528 0.5157908409596605
-0.4 -0.15040063226792852 0.5186324804844056
-0.4 -0.14322475076402055 0.5175477473321511
-0.4 -0.13711772486722876 0.5202333414221305
-0.4 -0.1302373764281496 0.5199367517122756
-0.4 -0.12315397171359764 0.5185769945255636
-0.4 -0.11656185976345491 0.5190735331804972
-0.4 -0.10956191800568361 0.517529889110683
-0.4 -0.10300769002451597 0.5178546280529056
-0.4 -0.09646202095235931 0.5180965918762509
-0.4 -0.08958402971039812 0.5162854846118051
-0.4 -0.0830828089636096 0.5163586416965599
-0.4 -0.0765933076656987 0.5163501382016157
-0.4 -0.07011654913221287 0.5162602730578734
-0.4 -0.06353114042839313 0.5150968784567305
-0.4 -0.05720532558552546 0.5158377174312229
-0.4 -0.050576844410053216 0.5135153189628536
-0.4 -0.04427141316973118 0.5140973078863135
-0.4 -0.037665056563029715 0.5106127138194894
-0.4 -0.031212254777824407 0.508042119466176
-0.4 -0.025024513906983226 0.5093856826646379
-0.4 -0.018661262031268763 0.5066564489862933
-0.4 -0.012368779175547873 0.5038482046228869
-0.4 -0.00620939837257416 0.5059618991306071
-0.4 -1.241791854335416e-16 0.507
-0.4 0.006233941449145802 0.5079617485342854
-0.4 0.012344237947024715 0.5028485058041907
-0.4 0.01858764758538625 0.5046578042171165
-0.4 0.02473010786101847 0.5033929099274069
-0.4 0.030844330360010906 0.502053410788775
-0.4 0.03707654005423213 0.5026343901660598
-0.4 0.04315604810925322 0.5011452439279374
-0.4 0.04959667300675782 0.5035634716961316
-0.4 0.05588265909799862 0.5039108337911945
-0.4 0.06181739097560429 0.5012021649723486
-0.4 0.06823241921311284 0.5023876361618844
-0.4 0.0746858114977792 0.5034908435720734
-0.4 0.08133536938693688 0.5054983260968235
-0.4 0.08821633460031546 0.5084032634726936
-0.4 0.0948146619607628 0.5092486424893701
-0.4 0.10105678680435443 0.5080467752488733
-0.4 0.10769791561995337 0.5087250327742064
-0.4 0.11371354364141537 0.5063894054899963
-0.4 0.12015021630594912 0.5059287751468912
-0.4 0.1265926737296004 0.5053862829143575
-0.4 0.1330398743135567 0.5047617178854128
-0.4 0.1394907721593717 0.5040548824110151
-0.4 0.14650135661653801 0.5051864532125876
-0.4 0.152689740235847 0.5033506165951419
-0.4 0.15885512934191395 0.5014389772263059
-0.4 0.16593764067101338 0.5023004075337164
-0.4 0.17273976513816158 0.5021174897770568
-0.4 0.179562291858053 0.5018429867425501
-0.4 0.186055575253198 0.500539032361315
-0.4 0.19326363461928875 0.5010171329742548
-0.4 0.20013996754004032 0.5004647773750632
-0.4 0.20741442034187876 0.5007427066211174
-0.4 0.21393767775314895 0.4990788214677014
-0.4 0.22126175744672452 0.4991585266141277
-0.4 0.228203398933505 0.49822405473360637
-0.4 0.23558285648008545 0.49809810051101727
-0.4 0.24255477991180555 0.4969669795287566
-0.4 0.24998389928796125 0.4966327114647065
-0.4 0.25790167813661413 0.49707818742559834
-0.4 0.2663391563066886 0.4982855143568206
-0.4 0.2729160149967836 0.4958556733146001
-0.4 0.28095196957097673 0.4959495849319656
-0.4 0.28802395549111054 0.4941924737015476
-0.4 0.2961231806552955 0.4940516793601568
-0.4 0.3026882469054766 0.49123194642173795
-0.4 0.31136861477429034 0.49170477497532966
-0.4 0.3211964181805853 0.4937143515717996
-0.4 0.3277864374815651 0.49056707125850185
-0.4 0.33887335465938423 0.4939289923682301
-0.4 0.34548491485070737 0.4905508878909501
-0.4 0.35440770376114544 0.49032660494281993
-0.4 0.36397227504487695 0.490759801734674
-0.4 0.37360031254646875 0.4910313701436812
-0.4 0.3820588177505693 0.48956313155612247
-0.4 0.3917868990652761 0.48952224231470337
-0.4 0.39966776902309664 0.48699658561852427
-0.4 0.40947686127790717 0.486646380935884
-0.4 0.4193369651763247 0.4861280794571631
-0.4 0.4285830081008409 0.48469124725667845
-0.4 0.44054267437964406 0.48606393823285327
-0.4 0.4485160575472037 0.48281916503211986
-0.4 0.4578549217054123 0.4809000630797741
-0.4 0.46721371085460295 0.47882392211487457
-0.4 0.48012550442566565 0.48012550442566587
-0.4 0.4881284228435644 0.4762926020969194
-0.4 0.5011789814024149 0.4771620569580505
-0.4 0.5106600273556717 0.47437889546343076
-0.4 0.5231114945006009 0.47412062212199513
-0.4 0.533385112900703 0.4716400336442023
-0.4 0.5474619960241881 0.4722439654555809
-0.4 0.5616327729668847 0.472572352481107
-0.4 0.5728007459417882 0.4700854235652611
-0.4 0.5847721842004987 0.46801975661864753
-0.4 0.5999316314238474 0.4681912404318569
-0.4 0.6127944165488403 0.4662435018813308
-0.4 0.6273050820863837 0.46524115680859035
-0.4 0.6418821010160549 0.4639519031054999
-0.4 0.6548854353344185 0.461222361325694
-0.4 0.6679173352558702 0.458242766734727
-0.4 0.6801421428634821 0.45445645061003465
-0.4 0.6965647303160701 0.453165065378721
-0.4 0.7139012626360025 0.4520729888045973
-0.4 0.7321654660705281 0.4511471271034831
-0.4 0.7487970765302375 0.4488116956806827
-0.4 0.7646159776676043 0.44563146959725985
-0.4 0.7822082050067314 0.4431154748145761
-0.4 0.7989759259062108 0.4397516001361599
-0.4 0.8157771695222282 0.4360419815640481
-0.4 0.8397070809010999 0.43566962056649505
-0.4 0.85838855344889 0.4320764877980774
-0.4 0.8833969997771566 0.43115976248337273
-0.4 0.9085092395890604 0.42969286889743397
-0.4 0.9337155186339663 0.4276731582202735
-0.4 0.9535207751987826 0.4226666905072042
-0.4 0.9806944797532915 0.42038950674513853
-0.4 1.0070286904373027 0.4171249412779477
-0.4 1.0436408344518944 0.41736052600186574
-0.4 1.083204639447132 0.41783813741712117
-0.4 1.1201201192355268 0.41636032289807473
-0.4 1.1825793458698741 0.4231336558606284
-0.4 1.2387455962484828 0.4261564827325651
-0.4 1.298954551051274 0.4291166208656837
-0.4 1.3842003705942896 0.4385126384115187
-0.4 1.5196212531427478 0.4609720674800865
-0.4 1.6365736050841242 0.47459755071213017
-0.4 1.72034027744486 0.4760822720926941
-0.4 1.7666660125989448 0.46563956009744795
-0.4 1.7955278496631006 0.4497563130009421
-0.4 1.8193977106243977 0.43207866248485494
-0.4 1.8382228129925877 0.4127867364555435
-0.4 1.8558680522551338 0.3928902806366386
-0.4 1.8772230266917829 0.3734028763388705
-0.4 1.8855963248930727 0.35107050509796056
-0.4 1.8937036286715452 0.3285887501972984
-0.4 1.9054917370446665 0.306596216634353
-0.4 1.915045723291816 0.28407019854557997
-0.4 1.9154147942818989 0.2601445095442755
-0.4 1.922432858517701 0.23710947786088155
-0.4 1.9291734287745728 0.21394130435742775
-0.4 1.9366294781040951 0.1907413550813249
-0.4 1.938824343307686 0.1669615698222809
-0.4 1.937735357326695 0.1429359470741539
-0.4 1.94034161147789 0.11920751137149453
-0.4 1.94065957140665 0.09533849121817348
-0.4 1.9416833932551631 0.0715164341750597
-0.4 1.9404154070893322 0.047634524562973186
-0.4 1.9398539215679402 0.02380678427429631
-0.4 1.936 5.92729050787319e-16
-0.4 1.9368541474624228 -0.023769969659439685
-0.4 1.9364166118145476 -0.047536359648880346
-0.4 1.932689491793868 -0.071185169168588
-0.4 1.9326692077570085 -0.09494594982355295
-0.4 1.9293623122359884 -0.11853298327216903
-0.4 1.9297570336732657 -0.1423474305653554
-0.4 1.9268685919614927 -0.16593200207414643
-0.4 1.9256824461107007 -0.1896631665377002
-0.4 1.9251978008945636 -0.21350041552825105
-0.4 1.9234253380522999 -0.2372318885360813
-0.4 1.9173965995527544 -0.26041367096128853
-0.4 1.9180132528217106 -0.2845103899689449
-0.4 1.9133901483899294 -0.3078670817810244
-0.4 1.9094680709497682 -0.3313241404174638
-0.4 1.9062415401291286 -0.3549143427450174
-0.4 1.9007618734214609 -0.37808504406725474
-0.4 1.8920657949717596 -0.4005534015557513
-0.4 1.887983621624553 -0.4239608997035427
-0.4 1.878747047708937 -0.44617320708997465
-0.4 1.8721603186654698 -0.4689517472133005
-0.4 1.8652976126455196 -0.49163585737710885
-0.4 1.8562327027220173 -0.5136887708966537
-0.4 1.8430661667584711 -0.5344792839299154
-0.4 1.8315838025914475 -0.5556048722650418
-0.4 1.8150947008343852 -0.5750193275038101
-0.4 1.7955577895014325 -0.5931721710943029
-0.4 1.7758505570646195 -0.610932728680728
-0.4 1.7465642409145035 -0.6249306780425687
-0.4 1.7172050698238372 -0.6383030222169638
-0.4 1.6700571099141832 -0.6442121153976276
-0.4 1.5348205510222248 -0.6137873216023884
-0.4 1.2851164297231998 -0.53231265441984
-0.4 1.1544069977227127 -0.494854002316676
-0.4 1.0577406873489854 -0.46886420030377235
-0.4 0.9982664454333933 -0.4572396569872061
-0.4 0.9528047149521093 -0.45064306847551727
